ply
format ascii 1.0
comment StandardCyborgFusionVersion 1.2.0
comment StandardCyborgFusionMetadata { "color_space": "sRGB" }
element vertex 728
property float x
property float y
property float z
property float nx
property float ny
property float nz
property uchar red
property uchar green
property uchar blue
property float surfel_radius
element face 0
property list uchar int vertex_indices
end_header
-0.0363 -0.0278 -0.2235 0.1977 -0.4625 0.8643 163 109 87 0.000588
-0.0371 -0.0279 -0.2235 0.1949 -0.4872 0.8512 168 112 89 0.000589
-0.0381 -0.0279 -0.2230 0.2025 -0.5220 0.8285 165 110 87 0.000597
-0.0389 -0.0274 -0.2224 0.2037 -0.5503 0.8097 160 107 85 0.000610
-0.0399 -0.0277 -0.2225 0.1686 -0.5607 0.8107 162 109 86 0.000601
-0.0410 -0.0274 -0.2220 0.1591 -0.5854 0.7950 162 110 89 0.000626
-0.0419 -0.0265 -0.2213 0.1448 -0.6002 0.7867 166 114 92 0.000636
-0.0433 -0.0275 -0.2216 0.0907 -0.6039 0.7919 155 104 82 0.000642
-0.0448 -0.0280 -0.2217 0.0307 -0.6094 0.7923 150 99 77 0.000666
-0.0449 -0.0268 -0.2209 0.0248 -0.6368 0.7706 152 101 78 0.000685
-0.0465 -0.0271 -0.2212 -0.0343 -0.6339 0.7727 150 98 75 0.000691
-0.0469 -0.0279 -0.2217 -0.0633 -0.6132 0.7874 145 95 71 0.000679
-0.0480 -0.0277 -0.2217 -0.1221 -0.6248 0.7712 148 95 71 0.000707
-0.0492 -0.0276 -0.2218 -0.1799 -0.5906 0.7867 148 97 72 0.000631
-0.0505 -0.0281 -0.2226 -0.2364 -0.5530 0.7989 150 98 73 0.000645
-0.0522 -0.0285 -0.2235 -0.2617 -0.5411 0.7992 151 99 73 0.000688
-0.0537 -0.0282 -0.2238 -0.2409 -0.5169 0.8215 151 101 75 0.000685
-0.0549 -0.0276 -0.2240 -0.1516 -0.5491 0.8219 151 101 75 0.000672
-0.0568 -0.0283 -0.2247 -0.0830 -0.6191 0.7809 155 103 77 0.000705
-0.0584 -0.0287 -0.2251 -0.0874 -0.6305 0.7713 152 100 74 0.000673
-0.0598 -0.0283 -0.2248 -0.0974 -0.6515 0.7524 147 95 70 0.000665
-0.0613 -0.0285 -0.2254 -0.1037 -0.5966 0.7958 146 94 69 0.000569
-0.0627 -0.0293 -0.2263 -0.1226 -0.6280 0.7685 149 97 71 0.000566
-0.0624 -0.0283 -0.2255 -0.1277 -0.6358 0.7612 148 94 69 0.000652
-0.0634 -0.0295 -0.2269 -0.1410 -0.5759 0.8053 151 97 72 0.000677
-0.0646 -0.0299 -0.2273 -0.1423 -0.6293 0.7640 151 98 71 0.000683
-0.0663 -0.0292 -0.2270 -0.1260 -0.6500 0.7494 153 97 71 0.000687
-0.0696 -0.0289 -0.2274 -0.1628 -0.6197 0.7677 154 97 71 0.000697
-0.0720 -0.0289 -0.2282 -0.1813 -0.6362 0.7499 154 97 71 0.000756
-0.0733 -0.0281 -0.2279 -0.1848 -0.6593 0.7289 156 98 71 0.000819
-0.0754 -0.0291 -0.2296 -0.1533 -0.6867 0.7106 157 99 72 0.000821
-0.0759 -0.0288 -0.2296 -0.1372 -0.6703 0.7293 160 100 73 0.000734
-0.0763 -0.0284 -0.2292 -0.1222 -0.6744 0.7282 157 98 71 0.000798
-0.0781 -0.0287 -0.2298 -0.0123 -0.6969 0.7171 155 97 70 0.000752
-0.0782 -0.0290 -0.2300 -0.0567 -0.6563 0.7523 156 98 71 0.000712
-0.0794 -0.0284 -0.2296 0.0722 -0.6180 0.7829 144 91 65 0.000651
-0.1099 -0.0355 -0.2847 0.2677 -0.6525 0.7089 114 72 46 0.000777
-0.1120 -0.0366 -0.2854 0.2355 -0.6804 0.6939 109 69 44 0.000810
-0.1137 -0.0364 -0.2845 0.2824 -0.6713 0.6853 110 70 45 0.000788
-0.1146 -0.0364 -0.2841 0.3224 -0.6584 0.6801 110 70 45 0.000789
-0.1156 -0.0364 -0.2834 0.3632 -0.5990 0.7136 112 72 47 0.000727
-0.1168 -0.0367 -0.2832 0.3755 -0.5774 0.7250 114 74 49 0.000703
-0.1168 -0.0351 -0.2817 0.3648 -0.5997 0.7122 117 76 50 0.000828
-0.1191 -0.0363 -0.2811 0.4784 -0.5734 0.6651 122 82 56 0.000708
-0.1201 -0.0362 -0.2801 0.5282 -0.5230 0.6689 129 88 62 0.000705
-0.1204 -0.0347 -0.2783 0.6062 -0.4432 0.6604 134 93 65 0.000736
-0.1214 -0.0352 -0.2772 0.6153 -0.3726 0.6947 138 96 69 0.000668
-0.1226 -0.0345 -0.2739 0.6630 0.0038 0.7486 155 111 82 0.000622
-0.1225 -0.0332 -0.2672 0.5851 0.5066 0.6333 173 128 98 0.000636
-0.1223 -0.0340 -0.2580 0.8316 0.2891 0.4742 207 157 125 0.000592
-0.1227 -0.0337 -0.2565 0.8557 0.2644 0.4448 213 162 130 0.000587
-0.1236 -0.0334 -0.2531 0.8948 0.2451 0.3732 218 167 134 0.000623
-0.1236 -0.0340 -0.2516 0.8945 0.2049 0.3973 221 170 137 0.000603
-0.1240 -0.0318 -0.2531 0.9064 0.2427 0.3457 218 168 135 0.000684
-0.1250 -0.0339 -0.2486 0.8906 0.1647 0.4240 222 171 138 0.000598
-0.1262 -0.0348 -0.2463 0.8893 0.1697 0.4247 221 171 137 0.000622
-0.1252 -0.0326 -0.2425 0.9027 0.1444 0.4053 226 175 141 0.000542
-0.1257 -0.0321 -0.2421 0.9008 0.2391 0.3625 224 175 141 0.000670
-0.1247 -0.0303 -0.2398 0.9343 0.1464 0.3251 230 179 145 0.000659
-0.1252 -0.0300 -0.2392 0.9062 0.1682 0.3880 227 177 143 0.000663
-0.1255 -0.0293 -0.2371 0.9044 0.0986 0.4151 228 178 145 0.000554
-0.1274 -0.0301 -0.2286 0.8686 0.3359 0.3644 224 175 143 0.000627
-0.1276 -0.0290 -0.2276 0.9172 0.2504 0.3099 226 177 144 0.000588
-0.1283 -0.0288 -0.2254 0.9090 0.2483 0.3348 227 178 145 0.000555
-0.1287 -0.0278 -0.2218 0.8730 0.1467 0.4650 229 180 145 0.000552
-0.1298 -0.0294 -0.2218 0.8648 0.2850 0.4133 222 176 142 0.000571
0.1054 -0.0294 -0.2440 -0.6638 0.0520 0.7461 69 60 54 0.000545
0.1046 -0.0298 -0.2454 -0.5243 0.0365 0.8507 54 47 43 0.000575
0.1040 -0.0301 -0.2462 -0.4916 0.0948 0.8657 45 37 35 0.000576
0.1039 -0.0299 -0.2458 -0.4253 0.0859 0.9010 64 57 53 0.000558
0.1036 -0.0308 -0.2466 -0.5079 0.0754 0.8581 58 49 45 0.000557
0.1030 -0.0310 -0.2466 -0.5416 -0.0172 0.8405 65 57 52 0.000568
0.1019 -0.0320 -0.2475 -0.5455 -0.1093 0.8309 67 60 55 0.000564
0.1014 -0.0306 -0.2479 -0.5312 -0.1318 0.8370 55 47 43 0.000565
0.1000 -0.0310 -0.2493 -0.3521 -0.1709 0.9202 43 35 33 0.000570
0.1016 -0.0307 -0.2472 -0.5244 -0.1300 0.8415 65 57 52 0.000586
0.0958 -0.0330 -0.2507 -0.1708 -0.1647 0.9714 53 43 40 0.000595
0.0785 -0.0291 -0.2341 0.3051 -0.3363 0.8910 146 100 76 0.000652
0.0757 -0.0285 -0.2319 0.3583 -0.3529 0.8644 154 105 80 0.000663
0.0737 -0.0281 -0.2302 0.3731 -0.4003 0.8370 164 110 85 0.000667
0.0727 -0.0291 -0.2303 0.2885 -0.4513 0.8445 154 102 77 0.000674
0.0709 -0.0284 -0.2291 0.2817 -0.5180 0.8077 162 108 82 0.000680
0.0699 -0.0284 -0.2283 0.2711 -0.4335 0.8594 160 106 82 0.000670
0.0688 -0.0278 -0.2275 0.2516 -0.4998 0.8288 165 110 85 0.000680
0.0681 -0.0282 -0.2275 0.1947 -0.4136 0.8894 158 106 81 0.000666
0.0677 -0.0283 -0.2274 0.2107 -0.4521 0.8668 160 106 82 0.000640
0.0665 -0.0274 -0.2267 0.2080 -0.4728 0.8563 165 110 86 0.000683
0.0658 -0.0282 -0.2269 0.2081 -0.4936 0.8444 163 109 85 0.000683
0.0641 -0.0281 -0.2264 0.1715 -0.4949 0.8519 163 109 86 0.000683
0.0627 -0.0287 -0.2265 0.1467 -0.5244 0.8387 162 109 85 0.000680
0.0606 -0.0280 -0.2256 0.1561 -0.5239 0.8374 165 112 88 0.000677
0.0573 -0.0270 -0.2245 0.1716 -0.5052 0.8458 167 112 88 0.000665
0.0564 -0.0279 -0.2248 0.1678 -0.5125 0.8421 165 111 87 0.000663
0.0545 -0.0271 -0.2238 0.1727 -0.5248 0.8336 169 113 90 0.000665
0.0529 -0.0270 -0.2234 0.1800 -0.5297 0.8289 168 113 88 0.000668
0.0511 -0.0269 -0.2230 0.1775 -0.5437 0.8203 169 113 89 0.000665
0.0498 -0.0268 -0.2226 0.1874 -0.5253 0.8300 169 114 90 0.000648
0.0483 -0.0274 -0.2227 0.1848 -0.4885 0.8528 167 114 91 0.000632
0.0479 -0.0267 -0.2220 0.1858 -0.5132 0.8379 170 116 94 0.000616
0.0465 -0.0267 -0.2217 0.1555 -0.4452 0.8818 168 115 94 0.000603
0.0450 -0.0269 -0.2214 0.1857 -0.4763 0.8595 171 119 98 0.000587
0.0437 -0.0269 -0.2212 0.1884 -0.4690 0.8629 175 124 105 0.000582
0.0426 -0.0258 -0.2203 0.1301 -0.3711 0.9194 170 123 104 0.000578
0.0422 -0.0266 -0.2206 0.1871 -0.4457 0.8754 177 127 109 0.000574
0.0414 -0.0266 -0.2205 0.2211 -0.4404 0.8701 178 130 112 0.000570
0.0400 -0.0262 -0.2199 0.2355 -0.3983 0.8865 181 133 116 0.000566
0.0396 -0.0261 -0.2197 0.2145 -0.4031 0.8897 179 132 116 0.000561
0.0388 -0.0266 -0.2198 0.2270 -0.3656 0.9027 172 129 112 0.000556
0.0381 -0.0259 -0.2194 0.2090 -0.3485 0.9137 169 127 111 0.000546
0.0375 -0.0270 -0.2195 0.2175 -0.3440 0.9134 156 119 104 0.000543
0.0360 -0.0265 -0.2189 0.1373 -0.3239 0.9361 114 85 75 0.000524
0.0350 -0.0267 -0.2188 0.0447 -0.3116 0.9492 86 62 55 0.000515
0.0339 -0.0262 -0.2187 -0.1137 -0.2768 0.9542 69 49 45 0.000518
0.0333 -0.0266 -0.2188 -0.1939 -0.2881 0.9378 62 44 41 0.000516
0.0323 -0.0266 -0.2192 -0.3421 -0.2833 0.8959 57 38 35 0.000526
0.0311 -0.0267 -0.2200 -0.5006 -0.2696 0.8226 60 40 36 0.000577
0.0301 -0.0267 -0.2208 -0.5468 -0.2473 0.7999 68 44 38 0.000570
0.0289 -0.0268 -0.2218 -0.5652 -0.2418 0.7887 90 59 50 0.000573
0.0275 -0.0269 -0.2229 -0.4918 -0.2220 0.8419 125 86 71 0.000538
0.0264 -0.0263 -0.2234 -0.4274 -0.2055 0.8804 139 95 77 0.000518
0.0261 -0.0270 -0.2237 -0.3848 -0.2076 0.8993 149 103 83 0.000504
0.0249 -0.0265 -0.2241 -0.2839 -0.1728 0.9432 167 117 95 0.000498
0.0239 -0.0271 -0.2244 -0.1333 -0.1463 0.9802 184 132 108 0.000500
0.0066 -0.0264 -0.2272 0.0023 -0.0927 0.9957 85 60 55 0.000510
0.0056 -0.0270 -0.2268 0.0507 -0.1476 0.9877 93 65 58 0.000512
0.0048 -0.0273 -0.2265 0.0480 -0.1553 0.9867 111 80 74 0.000513
0.0040 -0.0275 -0.2267 0.0778 -0.1920 0.9783 123 88 81 0.000514
0.0004 -0.0266 -0.2257 0.0373 -0.2438 0.9691 140 96 85 0.000533
-0.0003 -0.0271 -0.2263 0.0699 -0.2976 0.9521 146 100 90 0.000543
-0.0014 -0.0268 -0.2265 0.1162 -0.3114 0.9431 156 107 96 0.000549
-0.0023 -0.0269 -0.2262 0.1336 -0.3419 0.9302 156 106 95 0.000552
-0.0029 -0.0270 -0.2261 0.1661 -0.3587 0.9185 155 106 93 0.000555
-0.0044 -0.0263 -0.2256 0.2373 -0.3843 0.8922 162 112 97 0.000569
-0.0051 -0.0267 -0.2253 0.2504 -0.3756 0.8923 162 112 96 0.000569
-0.0065 -0.0263 -0.2249 0.3122 -0.3858 0.8682 170 119 102 0.000556
-0.0075 -0.0263 -0.2243 0.2810 -0.3774 0.8824 170 118 102 0.000542
-0.0085 -0.0268 -0.2242 0.2553 -0.3634 0.8960 170 116 101 0.000526
-0.0099 -0.0261 -0.2237 0.2248 -0.2916 0.9297 169 114 102 0.000513
-0.0102 -0.0268 -0.2236 0.1608 -0.3132 0.9360 164 111 99 0.000505
-0.0111 -0.0267 -0.2235 0.1002 -0.2750 0.9562 160 108 96 0.000501
-0.0127 -0.0268 -0.2232 -0.0427 -0.1770 0.9833 153 107 99 0.000502
-0.0149 -0.0265 -0.2239 -0.1862 -0.0992 0.9775 65 44 43 0.000506
-0.0157 -0.0265 -0.2243 -0.1626 -0.0884 0.9827 95 55 49 0.000510
-0.0185 -0.0274 -0.2245 0.0086 -0.2074 0.9782 156 102 91 0.000524
-0.0194 -0.0269 -0.2243 0.0514 -0.2114 0.9761 159 103 91 0.000519
-0.0211 -0.0265 -0.2240 0.0908 -0.2077 0.9740 160 102 89 0.000519
-0.0224 -0.0272 -0.2241 0.0698 -0.2027 0.9767 155 97 85 0.000515
-0.0255 -0.0266 -0.2239 0.0078 -0.1294 0.9916 157 98 85 0.000504
-0.0269 -0.0273 -0.2240 0.0011 -0.1341 0.9910 157 98 84 0.000500
-0.0279 -0.0268 -0.2240 0.0182 -0.1338 0.9908 156 98 83 0.000500
-0.0290 -0.0270 -0.2240 0.0227 -0.1606 0.9868 158 100 84 0.000504
-0.0300 -0.0268 -0.2241 0.0594 -0.1779 0.9823 157 100 83 0.000508
-0.0306 -0.0270 -0.2241 0.0782 -0.2193 0.9725 158 101 84 0.000512
-0.0316 -0.0271 -0.2240 0.1032 -0.2462 0.9637 161 104 86 0.000523
-0.0324 -0.0267 -0.2238 0.1540 -0.2923 0.9438 158 103 84 0.000536
-0.0339 -0.0275 -0.2239 0.1405 -0.3580 0.9231 164 107 88 0.000543
-0.0345 -0.0271 -0.2236 0.1881 -0.4012 0.8965 164 108 88 0.000554
-0.0383 -0.0265 -0.2221 0.2287 -0.5362 0.8125 162 109 87 0.000621
-0.0398 -0.0267 -0.2217 0.1955 -0.5727 0.7961 162 110 88 0.000627
-0.0410 -0.0263 -0.2213 0.1656 -0.5891 0.7909 164 113 92 0.000631
-0.0439 -0.0265 -0.2207 0.0787 -0.6009 0.7955 154 102 81 0.000640
-0.0448 -0.0265 -0.2205 0.0321 -0.6090 0.7925 148 98 77 0.000643
-0.0459 -0.0269 -0.2208 -0.0197 -0.6203 0.7841 147 97 75 0.000652
-0.0482 -0.0272 -0.2213 -0.1496 -0.5898 0.7935 144 94 70 0.000674
-0.0502 -0.0270 -0.2217 -0.2773 -0.5050 0.8174 147 97 72 0.000657
-0.0518 -0.0275 -0.2227 -0.2817 -0.4912 0.8243 147 97 72 0.000675
-0.0528 -0.0265 -0.2229 -0.2886 -0.4649 0.8370 153 102 76 0.000666
-0.0542 -0.0272 -0.2235 -0.2086 -0.5100 0.8345 147 99 74 0.000657
-0.0561 -0.0279 -0.2242 -0.0991 -0.5864 0.8039 148 99 74 0.000680
-0.0576 -0.0284 -0.2247 -0.0900 -0.6010 0.7942 146 97 72 0.000677
-0.0612 -0.0278 -0.2245 -0.1129 -0.6502 0.7513 144 92 67 0.000623
-0.0618 -0.0272 -0.2241 -0.0992 -0.6849 0.7219 145 91 66 0.000625
-0.0634 -0.0286 -0.2259 -0.1424 -0.5606 0.8158 143 92 67 0.000675
-0.0642 -0.0285 -0.2259 -0.1511 -0.6434 0.7504 149 95 70 0.000691
-0.0660 -0.0272 -0.2252 -0.1659 -0.6600 0.7327 153 96 71 0.000776
-0.0676 -0.0279 -0.2261 -0.1731 -0.6470 0.7425 156 99 72 0.000738
-0.0692 -0.0270 -0.2259 -0.1959 -0.6314 0.7503 156 98 72 0.000767
-0.0705 -0.0278 -0.2268 -0.1741 -0.6067 0.7756 153 96 70 0.000703
-0.0706 -0.0275 -0.2266 -0.1970 -0.6286 0.7523 156 97 71 0.000801
-0.0720 -0.0271 -0.2267 -0.2207 -0.6294 0.7450 159 100 73 0.000806
-0.1108 -0.0352 -0.2842 0.2647 -0.6896 0.6741 114 71 46 0.000903
-0.1121 -0.0354 -0.2840 0.2663 -0.6808 0.6824 114 72 47 0.000800
-0.1133 -0.0352 -0.2836 0.2863 -0.6374 0.7153 112 71 46 0.000781
-0.1145 -0.0350 -0.2828 0.2916 -0.6493 0.7024 113 73 47 0.000777
-0.1161 -0.0353 -0.2822 0.4005 -0.6234 0.6716 116 75 50 0.000767
-0.1174 -0.0352 -0.2812 0.4076 -0.5920 0.6953 123 83 56 0.000723
-0.1186 -0.0350 -0.2804 0.4846 -0.5505 0.6798 129 89 61 0.000770
-0.1193 -0.0344 -0.2795 0.5301 -0.5244 0.6663 131 90 62 0.000790
-0.1216 -0.0348 -0.2759 0.5949 -0.2526 0.7631 144 101 73 0.000624
-0.1216 -0.0339 -0.2761 0.6107 -0.4044 0.6809 139 97 69 0.000710
-0.1225 -0.0334 -0.2747 0.7084 -0.1192 0.6957 152 108 79 0.000632
-0.1229 -0.0336 -0.2727 0.6169 0.0525 0.7853 158 113 84 0.000624
-0.1239 -0.0319 -0.2710 0.6891 0.4696 0.5519 163 118 87 0.000636
-0.1224 -0.0330 -0.2607 0.6992 0.3905 0.5988 198 150 118 0.000586
-0.1241 -0.0328 -0.2508 0.8964 0.2292 0.3795 221 171 138 0.000636
-0.1242 -0.0321 -0.2519 0.8752 0.2704 0.4012 218 168 135 0.000616
-0.1250 -0.0324 -0.2487 0.8907 0.1990 0.4087 221 171 138 0.000609
-0.1258 -0.0323 -0.2499 0.8778 0.1798 0.4440 220 170 137 0.000656
-0.1261 -0.0333 -0.2454 0.8802 0.2286 0.4160 220 170 137 0.000608
-0.1263 -0.0319 -0.2489 0.8873 0.2213 0.4045 218 169 136 0.000703
-0.1262 -0.0318 -0.2440 0.9019 0.1874 0.3892 224 173 139 0.000590
-0.1244 -0.0298 -0.2396 0.9106 0.1237 0.3942 229 177 143 0.000607
-0.1252 -0.0292 -0.2382 0.8766 0.1052 0.4696 228 177 144 0.000585
-0.1264 -0.0296 -0.2365 0.8881 0.2614 0.3781 223 175 142 0.000595
-0.1269 -0.0308 -0.2345 0.8495 0.3958 0.3489 218 172 139 0.000636
-0.1264 -0.0299 -0.2315 0.9187 0.2111 0.3339 224 175 143 0.000589
-0.1268 -0.0291 -0.2312 0.9380 0.2376 0.2525 225 176 143 0.000659
-0.1281 -0.0277 -0.2264 0.9067 0.1879 0.3776 228 179 146 0.000565
-0.1290 -0.0287 -0.2255 0.9128 0.3067 0.2695 224 176 143 0.000644
-0.1293 -0.0289 -0.2233 0.9159 0.2946 0.2725 224 178 144 0.000613
0.1055 -0.0282 -0.2438 -0.5826 0.1215 0.8036 63 54 49 0.000567
0.1056 -0.0282 -0.2448 -0.5960 0.1236 0.7934 64 56 51 0.000562
0.1054 -0.0281 -0.2456 -0.3960 0.2154 0.8926 56 49 45 0.000564
0.1050 -0.0290 -0.2450 -0.4996 0.1126 0.8589 57 49 45 0.000577
0.1045 -0.0284 -0.2458 -0.3537 0.1540 0.9226 63 56 51 0.000562
0.1040 -0.0291 -0.2460 -0.4328 0.1757 0.8842 51 44 40 0.000562
0.1033 -0.0297 -0.2465 -0.4331 0.1088 0.8948 69 62 58 0.000560
0.1025 -0.0288 -0.2467 -0.3382 0.0571 0.9393 57 50 46 0.000580
0.1025 -0.0310 -0.2472 -0.5284 -0.0051 0.8490 63 56 51 0.000563
0.1021 -0.0296 -0.2473 -0.4420 -0.0604 0.8950 55 47 43 0.000556
0.1016 -0.0293 -0.2468 -0.4432 -0.0487 0.8951 67 59 54 0.000570
0.0999 -0.0299 -0.2487 -0.4006 -0.1942 0.8954 49 41 37 0.000570
0.0990 -0.0297 -0.2494 -0.3875 -0.1836 0.9034 41 32 29 0.000606
0.0805 -0.0278 -0.2350 0.4027 -0.3733 0.8358 152 106 80 0.000746
0.0783 -0.0279 -0.2334 0.4128 -0.3184 0.8533 157 108 83 0.000703
0.0759 -0.0270 -0.2311 0.3736 -0.4215 0.8263 169 116 91 0.000744
0.0750 -0.0271 -0.2307 0.3995 -0.3760 0.8361 167 114 89 0.000741
0.0735 -0.0278 -0.2299 0.3480 -0.3612 0.8651 163 110 85 0.000657
0.0711 -0.0272 -0.2279 0.3312 -0.4395 0.8350 168 113 88 0.000645
0.0697 -0.0271 -0.2274 0.2574 -0.4401 0.8603 167 113 88 0.000667
0.0677 -0.0264 -0.2265 0.2221 -0.4971 0.8388 173 117 92 0.000719
0.0677 -0.0271 -0.2267 0.2508 -0.4582 0.8527 168 114 89 0.000678
0.0648 -0.0270 -0.2260 0.2026 -0.4852 0.8506 168 113 89 0.000673
0.0629 -0.0274 -0.2258 0.1539 -0.5045 0.8496 165 111 87 0.000669
0.0619 -0.0275 -0.2257 0.1311 -0.5236 0.8418 166 112 89 0.000669
0.0603 -0.0276 -0.2253 0.1475 -0.5177 0.8428 165 111 88 0.000662
0.0585 -0.0267 -0.2244 0.1542 -0.5002 0.8521 167 113 89 0.000661
0.0582 -0.0271 -0.2246 0.1709 -0.5052 0.8459 167 112 88 0.000643
0.0570 -0.0265 -0.2241 0.1916 -0.4572 0.8685 169 114 90 0.000656
0.0558 -0.0269 -0.2240 0.2003 -0.5151 0.8334 168 113 89 0.000668
0.0556 -0.0266 -0.2238 0.1913 -0.4989 0.8453 169 113 90 0.000664
0.0545 -0.0263 -0.2232 0.1954 -0.4327 0.8801 167 113 89 0.000656
0.0528 -0.0262 -0.2228 0.1729 -0.4415 0.8804 169 114 90 0.000653
0.0487 -0.0259 -0.2217 0.1956 -0.5113 0.8369 173 117 94 0.000610
0.0463 -0.0263 -0.2214 0.1403 -0.5112 0.8479 173 118 97 0.000587
0.0459 -0.0263 -0.2213 0.1540 -0.4939 0.8558 171 118 96 0.000578
0.0440 -0.0260 -0.2207 0.1594 -0.4878 0.8583 175 123 104 0.000570
0.0428 -0.0261 -0.2206 0.1732 -0.4696 0.8657 179 128 110 0.000565
0.0412 -0.0256 -0.2199 0.1840 -0.4171 0.8901 181 131 114 0.000559
0.0403 -0.0255 -0.2196 0.1981 -0.3975 0.8960 181 133 116 0.000558
0.0372 -0.0258 -0.2190 0.1916 -0.3246 0.9263 155 117 103 0.000529
0.0361 -0.0255 -0.2186 0.1164 -0.2904 0.9498 120 90 80 0.000511
0.0351 -0.0251 -0.2184 0.0273 -0.2754 0.9610 95 69 62 0.000512
0.0345 -0.0256 -0.2184 -0.0333 -0.2856 0.9578 81 58 52 0.000511
0.0333 -0.0257 -0.2186 -0.2051 -0.2840 0.9366 67 49 45 0.000509
0.0316 -0.0246 -0.2190 -0.4458 -0.2371 0.8631 68 47 41 0.000527
0.0317 -0.0256 -0.2192 -0.4214 -0.2680 0.8664 56 37 33 0.000538
0.0308 -0.0255 -0.2198 -0.5155 -0.2657 0.8147 60 39 34 0.000565
0.0299 -0.0256 -0.2205 -0.5620 -0.2363 0.7926 68 44 39 0.000588
0.0295 -0.0253 -0.2209 -0.5750 -0.2354 0.7835 74 48 40 0.000604
0.0283 -0.0257 -0.2219 -0.5716 -0.2342 0.7864 101 68 57 0.000582
0.0275 -0.0258 -0.2226 -0.5206 -0.2549 0.8149 120 81 67 0.000567
0.0270 -0.0258 -0.2229 -0.4938 -0.2230 0.8405 130 89 73 0.000550
0.0257 -0.0259 -0.2236 -0.3829 -0.2002 0.9018 149 102 82 0.000508
0.0247 -0.0257 -0.2241 -0.2708 -0.1616 0.9490 167 117 95 0.000499
0.0227 -0.0268 -0.2245 0.0311 -0.0823 0.9961 197 145 122 0.000504
0.0057 -0.0260 -0.2265 0.0586 -0.1529 0.9865 98 69 63 0.000513
0.0048 -0.0260 -0.2261 0.0709 -0.1584 0.9848 115 83 75 0.000512
0.0040 -0.0262 -0.2259 0.0763 -0.1856 0.9796 121 87 79 0.000515
0.0030 -0.0263 -0.2261 0.0737 -0.2076 0.9754 130 90 82 0.000514
0.0021 -0.0265 -0.2261 0.0567 -0.2277 0.9721 133 90 81 0.000520
0.0012 -0.0263 -0.2258 0.0359 -0.2358 0.9711 135 92 82 0.000522
0.0003 -0.0258 -0.2261 0.0808 -0.2465 0.9658 143 97 88 0.000537
-0.0002 -0.0258 -0.2255 0.0759 -0.2686 0.9603 140 96 86 0.000544
-0.0011 -0.0263 -0.2256 0.0966 -0.2872 0.9530 143 97 87 0.000547
-0.0026 -0.0256 -0.2259 0.1865 -0.3680 0.9109 157 107 95 0.000552
-0.0035 -0.0256 -0.2254 0.2134 -0.3625 0.9072 156 108 94 0.000559
-0.0042 -0.0255 -0.2254 0.2453 -0.3993 0.8834 161 112 97 0.000566
-0.0050 -0.0257 -0.2249 0.2625 -0.3688 0.8917 161 112 95 0.000562
-0.0062 -0.0256 -0.2246 0.2991 -0.3769 0.8766 166 116 99 0.000548
-0.0074 -0.0256 -0.2239 0.2564 -0.3568 0.8983 168 117 102 0.000535
-0.0084 -0.0256 -0.2238 0.2625 -0.3497 0.8993 171 118 103 0.000522
-0.0094 -0.0260 -0.2236 0.1926 -0.3235 0.9264 166 113 100 0.000513
-0.0101 -0.0256 -0.2234 0.1720 -0.3027 0.9374 167 112 101 0.000509
-0.0110 -0.0257 -0.2232 0.1037 -0.2789 0.9547 165 112 102 0.000508
-0.0119 -0.0261 -0.2231 0.0107 -0.2226 0.9748 157 108 98 0.000508
-0.0131 -0.0257 -0.2232 -0.1195 -0.1371 0.9833 143 108 101 0.000510
-0.0141 -0.0256 -0.2236 -0.1549 -0.1136 0.9814 79 61 59 0.000509
-0.0158 -0.0265 -0.2242 -0.1511 -0.1216 0.9810 102 60 52 0.000511
-0.0167 -0.0267 -0.2243 -0.0984 -0.1720 0.9802 142 86 75 0.000510
-0.0177 -0.0267 -0.2244 -0.0307 -0.1759 0.9839 153 98 87 0.000510
-0.0187 -0.0253 -0.2240 0.0677 -0.2450 0.9672 158 102 91 0.000517
-0.0196 -0.0257 -0.2240 0.0624 -0.2595 0.9637 159 103 90 0.000525
-0.0203 -0.0268 -0.2242 0.0744 -0.2197 0.9727 158 101 89 0.000520
-0.0214 -0.0268 -0.2241 0.0740 -0.2039 0.9762 156 99 86 0.000512
-0.0223 -0.0261 -0.2239 0.0466 -0.1742 0.9836 153 97 84 0.000512
-0.0230 -0.0264 -0.2238 0.0634 -0.1463 0.9872 153 96 84 0.000508
-0.0237 -0.0266 -0.2239 0.0374 -0.1619 0.9861 157 98 86 0.000505
-0.0247 -0.0266 -0.2238 0.0129 -0.1366 0.9905 156 98 85 0.000504
-0.0261 -0.0257 -0.2238 -0.0176 -0.1108 0.9937 155 98 84 0.000503
-0.0263 -0.0263 -0.2239 0.0024 -0.1008 0.9949 156 98 84 0.000501
-0.0271 -0.0259 -0.2239 0.0090 -0.1134 0.9935 154 97 82 0.000501
-0.0281 -0.0256 -0.2239 0.0393 -0.1246 0.9914 156 100 84 0.000501
-0.0289 -0.0259 -0.2239 0.0676 -0.1603 0.9847 153 97 81 0.000503
-0.0299 -0.0260 -0.2239 0.1055 -0.2079 0.9725 151 98 81 0.000509
-0.0310 -0.0254 -0.2237 0.1587 -0.2478 0.9557 153 100 82 0.000518
-0.0314 -0.0263 -0.2238 0.1285 -0.2727 0.9535 158 102 84 0.000518
-0.0325 -0.0262 -0.2237 0.1486 -0.2873 0.9462 162 105 86 0.000531
-0.0334 -0.0265 -0.2236 0.1881 -0.3569 0.9150 159 104 85 0.000541
-0.0342 -0.0258 -0.2232 0.2345 -0.4020 0.8851 161 106 85 0.000561
-0.0348 -0.0250 -0.2227 0.2975 -0.4314 0.8517 156 103 82 0.000571
-0.0354 -0.0264 -0.2230 0.2450 -0.4561 0.8555 161 107 86 0.000583
-0.0370 -0.0269 -0.2228 0.2345 -0.4920 0.8384 162 108 86 0.000609
-0.0423 -0.0262 -0.2208 0.1409 -0.5959 0.7906 162 111 90 0.000632
-0.0433 -0.0257 -0.2203 0.0939 -0.5995 0.7948 157 107 86 0.000639
-0.0446 -0.0257 -0.2201 -0.0182 -0.5508 0.8345 146 97 77 0.000647
-0.0460 -0.0257 -0.2199 -0.0351 -0.6025 0.7974 144 95 73 0.000645
-0.0474 -0.0262 -0.2204 -0.1311 -0.5798 0.8041 143 93 70 0.000661
-0.0490 -0.0263 -0.2208 -0.2438 -0.5279 0.8136 145 95 71 0.000665
-0.0518 -0.0264 -0.2221 -0.3133 -0.4507 0.8359 146 96 72 0.000673
-0.0521 -0.0248 -0.2220 -0.3174 -0.4096 0.8553 151 99 75 0.000654
-0.0533 -0.0262 -0.2227 -0.2335 -0.4754 0.8482 147 99 74 0.000646
-0.0541 -0.0256 -0.2228 -0.1070 -0.5073 0.8551 152 102 78 0.000630
-0.0546 -0.0258 -0.2228 -0.0933 -0.5131 0.8533 146 99 75 0.000636
-0.0552 -0.0265 -0.2233 -0.0667 -0.5407 0.8386 147 99 75 0.000636
-0.0564 -0.0264 -0.2231 0.0219 -0.6192 0.7850 145 95 71 0.000667
-0.0575 -0.0270 -0.2236 -0.0476 -0.6049 0.7949 142 92 69 0.000712
-0.0584 -0.0271 -0.2236 -0.0362 -0.6467 0.7619 143 92 67 0.000698
-0.0601 -0.0270 -0.2236 -0.0696 -0.6456 0.7605 144 91 67 0.000613
-0.0625 -0.0271 -0.2243 -0.1322 -0.6641 0.7359 147 92 67 0.000676
-0.0646 -0.0272 -0.2249 -0.1256 -0.6521 0.7477 149 94 69 0.000721
-0.0654 -0.0260 -0.2240 -0.2105 -0.6560 0.7248 154 96 70 0.000827
-0.0687 -0.0263 -0.2249 -0.2108 -0.6264 0.7504 149 94 70 0.000828
-0.0722 -0.0272 -0.2267 -0.1848 -0.6420 0.7441 154 97 72 0.000791
-0.0749 -0.0274 -0.2276 -0.1392 -0.6661 0.7327 156 97 71 0.000784
-0.0772 -0.0277 -0.2284 -0.0713 -0.6905 0.7198 157 98 71 0.000764
-0.0793 -0.0273 -0.2285 0.0416 -0.6811 0.7310 152 95 68 0.000712
-0.1091 -0.0328 -0.2822 0.2917 -0.6288 0.7208 119 74 49 0.000830
-0.1117 -0.0339 -0.2823 0.2732 -0.6763 0.6841 118 75 49 0.000814
-0.1136 -0.0340 -0.2821 0.2946 -0.6642 0.6871 117 75 49 0.000810
-0.1148 -0.0336 -0.2813 0.3439 -0.6306 0.6958 118 76 50 0.000760
-0.1158 -0.0338 -0.2810 0.3492 -0.6172 0.7051 120 78 52 0.000784
-0.1163 -0.0331 -0.2801 0.3732 -0.6129 0.6965 121 79 52 0.000791
-0.1172 -0.0338 -0.2803 0.3994 -0.5930 0.6991 123 82 55 0.000772
-0.1182 -0.0338 -0.2794 0.4825 -0.5222 0.7033 133 93 64 0.000681
-0.1200 -0.0348 -0.2785 0.5564 -0.4427 0.7032 133 92 64 0.000682
-0.1200 -0.0336 -0.2780 0.5541 -0.4274 0.7144 145 105 75 0.000671
-0.1208 -0.0341 -0.2768 0.6065 -0.3388 0.7193 141 99 71 0.000632
-0.1221 -0.0337 -0.2751 0.6481 -0.0486 0.7600 149 106 76 0.000627
-0.1232 -0.0323 -0.2725 0.7481 0.1706 0.6413 160 116 85 0.000619
-0.1240 -0.0315 -0.2724 0.7662 0.2115 0.6068 168 123 90 0.000624
-0.1229 -0.0319 -0.2663 0.6214 0.5682 0.5395 177 130 100 0.000640
-0.1229 -0.0318 -0.2572 0.7641 0.3285 0.5552 209 159 127 0.000576
-0.1242 -0.0316 -0.2528 0.8963 0.2338 0.3769 219 168 135 0.000667
-0.1248 -0.0317 -0.2504 0.8803 0.2489 0.4038 220 170 137 0.000594
-0.1246 -0.0313 -0.2516 0.8644 0.3058 0.3990 220 170 137 0.000595
-0.1254 -0.0326 -0.2478 0.8725 0.1988 0.4463 222 172 138 0.000604
-0.1258 -0.0337 -0.2473 0.8888 0.1531 0.4319 223 172 139 0.000578
-0.1258 -0.0314 -0.2456 0.8451 0.2122 0.4907 221 171 138 0.000558
-0.1260 -0.0310 -0.2451 0.8611 0.3106 0.4026 218 170 137 0.000627
-0.1260 -0.0306 -0.2435 0.8737 0.2629 0.4093 220 171 138 0.000567
-0.1246 -0.0286 -0.2400 0.8958 0.1542 0.4169 228 178 144 0.000567
-0.1251 -0.0280 -0.2387 0.8863 0.0770 0.4566 229 179 145 0.000609
-0.1254 -0.0277 -0.2374 0.8984 0.0789 0.4320 229 179 145 0.000583
-0.1265 -0.0292 -0.2328 0.9227 0.2004 0.3293 223 174 142 0.000664
-0.1273 -0.0294 -0.2295 0.9083 0.2771 0.3134 224 176 143 0.000632
-0.1277 -0.0279 -0.2277 0.9143 0.2069 0.3483 227 178 146 0.000609
-0.1282 -0.0277 -0.2271 0.9127 0.2244 0.3414 226 177 144 0.000620
-0.1285 -0.0266 -0.2260 0.8882 0.2120 0.4076 227 177 144 0.000536
-0.1290 -0.0263 -0.2222 0.8384 0.1782 0.5151 228 179 146 0.000520
0.1060 -0.0273 -0.2469 -0.3485 0.1069 0.9312 50 41 39 0.000569
0.1052 -0.0275 -0.2476 -0.1589 0.2546 0.9539 54 45 43 0.000577
0.1049 -0.0279 -0.2469 -0.3732 0.2699 0.8876 56 49 45 0.000577
0.1036 -0.0275 -0.2467 -0.1957 0.1705 0.9657 64 57 53 0.000575
0.1044 -0.0280 -0.2464 -0.3883 0.2057 0.8983 66 60 55 0.000565
0.1034 -0.0286 -0.2464 -0.3662 0.1128 0.9237 63 56 52 0.000555
0.1025 -0.0294 -0.2464 -0.4611 0.0249 0.8870 68 61 56 0.000560
0.0995 -0.0283 -0.2488 -0.2331 -0.2550 0.9384 46 39 35 0.000626
0.1003 -0.0290 -0.2475 -0.4696 -0.1104 0.8760 64 56 51 0.000581
0.0994 -0.0295 -0.2490 -0.4128 -0.1929 0.8902 45 36 33 0.000587
0.0993 -0.0307 -0.2497 -0.5415 -0.2287 0.8090 40 31 28 0.000666
0.0841 -0.0264 -0.2364 0.3227 -0.3612 0.8749 141 99 75 0.000728
0.0805 -0.0277 -0.2351 0.4716 -0.2460 0.8468 143 99 76 0.000782
0.0807 -0.0263 -0.2344 0.4147 -0.4113 0.8117 160 112 86 0.000758
0.0780 -0.0262 -0.2320 0.4036 -0.4088 0.8185 164 113 88 0.000750
0.0772 -0.0264 -0.2315 0.3580 -0.3809 0.8525 163 113 87 0.000673
0.0730 -0.0269 -0.2292 0.3595 -0.4210 0.8328 170 116 90 0.000658
0.0724 -0.0263 -0.2281 0.3205 -0.3215 0.8910 167 114 89 0.000648
0.0709 -0.0264 -0.2274 0.3163 -0.4083 0.8563 171 116 91 0.000641
0.0691 -0.0254 -0.2264 0.2930 -0.4349 0.8515 176 121 97 0.000724
0.0692 -0.0267 -0.2271 0.2633 -0.4355 0.8608 170 115 90 0.000675
0.0667 -0.0262 -0.2260 0.2284 -0.4446 0.8661 172 117 92 0.000681
0.0648 -0.0259 -0.2253 0.2201 -0.4685 0.8556 172 117 94 0.000667
0.0656 -0.0267 -0.2259 0.2098 -0.4784 0.8527 169 114 90 0.000658
0.0637 -0.0264 -0.2252 0.1871 -0.4812 0.8564 170 115 92 0.000652
0.0620 -0.0257 -0.2245 0.1385 -0.4527 0.8808 171 117 93 0.000649
0.0617 -0.0265 -0.2249 0.1596 -0.5081 0.8464 168 114 90 0.000651
0.0604 -0.0268 -0.2249 0.1514 -0.5084 0.8477 168 114 90 0.000647
0.0597 -0.0259 -0.2242 0.1545 -0.4886 0.8587 170 116 92 0.000632
0.0583 -0.0259 -0.2239 0.1564 -0.4907 0.8572 170 114 90 0.000636
0.0563 -0.0254 -0.2233 0.1624 -0.4541 0.8761 171 115 92 0.000650
0.0557 -0.0257 -0.2232 0.1820 -0.4438 0.8774 171 115 91 0.000655
0.0529 -0.0250 -0.2222 0.2263 -0.4889 0.8424 177 121 97 0.000680
0.0526 -0.0254 -0.2224 0.1309 -0.4894 0.8622 174 119 95 0.000654
0.0511 -0.0249 -0.2216 0.2091 -0.5042 0.8379 177 120 97 0.000648
0.0513 -0.0259 -0.2222 0.1713 -0.4891 0.8552 171 116 91 0.000621
0.0504 -0.0256 -0.2219 0.1849 -0.4755 0.8600 172 117 93 0.000615
0.0493 -0.0259 -0.2218 0.1568 -0.4832 0.8614 172 117 94 0.000606
0.0475 -0.0259 -0.2213 0.1684 -0.5090 0.8441 173 118 96 0.000588
0.0466 -0.0253 -0.2208 0.1458 -0.4575 0.8772 174 119 98 0.000578
0.0444 -0.0251 -0.2204 0.1450 -0.4816 0.8643 178 124 105 0.000569
0.0448 -0.0255 -0.2206 0.1654 -0.4657 0.8694 175 121 101 0.000562
0.0434 -0.0255 -0.2203 0.1647 -0.4615 0.8717 178 127 108 0.000557
0.0427 -0.0244 -0.2197 0.1112 -0.4316 0.8952 186 134 116 0.000554
0.0420 -0.0247 -0.2196 0.1527 -0.4323 0.8887 184 132 115 0.000553
0.0389 -0.0254 -0.2193 0.1961 -0.3574 0.9131 178 133 116 0.000550
0.0370 -0.0243 -0.2186 0.1565 -0.2713 0.9497 155 117 104 0.000541
0.0369 -0.0246 -0.2186 0.1519 -0.3001 0.9417 162 122 108 0.000525
0.0363 -0.0243 -0.2184 0.1139 -0.2832 0.9523 139 104 93 0.000509
0.0352 -0.0242 -0.2181 0.0375 -0.2642 0.9637 101 75 67 0.000505
0.0337 -0.0246 -0.2183 -0.1258 -0.2648 0.9561 75 54 49 0.000512
0.0327 -0.0251 -0.2186 -0.2920 -0.2656 0.9188 67 48 44 0.000508
0.0314 -0.0248 -0.2191 -0.4491 -0.2425 0.8599 61 41 36 0.000560
0.0306 -0.0251 -0.2198 -0.5388 -0.2388 0.8079 64 43 37 0.000575
0.0293 -0.0250 -0.2209 -0.5861 -0.2266 0.7779 80 52 44 0.000592
0.0291 -0.0256 -0.2213 -0.5816 -0.2418 0.7767 83 54 45 0.000589
0.0279 -0.0252 -0.2221 -0.5475 -0.2385 0.8021 111 75 62 0.000581
0.0265 -0.0247 -0.2230 -0.4663 -0.2261 0.8552 135 92 75 0.000562
0.0262 -0.0249 -0.2232 -0.4592 -0.2080 0.8636 138 94 76 0.000536
0.0252 -0.0250 -0.2237 -0.3499 -0.1876 0.9178 153 106 85 0.000513
0.0239 -0.0260 -0.2243 -0.1828 -0.1346 0.9739 181 129 105 0.000499
0.0230 -0.0260 -0.2244 -0.0624 -0.0901 0.9940 194 141 117 0.000500
0.0221 -0.0257 -0.2244 0.0514 -0.0280 0.9983 203 152 128 0.000514
0.0056 -0.0252 -0.2265 0.0781 -0.1638 0.9834 102 72 67 0.000515
0.0046 -0.0250 -0.2261 0.0958 -0.1623 0.9821 124 89 82 0.000514
0.0034 -0.0244 -0.2264 0.1677 -0.1749 0.9702 133 92 83 0.000525
0.0035 -0.0253 -0.2256 0.0894 -0.1816 0.9793 124 86 79 0.000522
0.0023 -0.0253 -0.2258 0.0899 -0.2173 0.9719 130 88 78 0.000521
0.0011 -0.0253 -0.2260 0.0999 -0.2458 0.9642 137 93 83 0.000532
0.0002 -0.0252 -0.2259 0.1031 -0.2775 0.9552 141 95 86 0.000539
-0.0006 -0.0252 -0.2259 0.1473 -0.3401 0.9288 143 96 88 0.000554
-0.0018 -0.0256 -0.2259 0.1744 -0.3373 0.9251 151 103 93 0.000546
-0.0023 -0.0249 -0.2250 0.1835 -0.3140 0.9315 144 99 88 0.000572
-0.0024 -0.0258 -0.2248 0.1490 -0.3002 0.9422 144 99 87 0.000557
-0.0035 -0.0260 -0.2252 0.2150 -0.3477 0.9126 151 104 90 0.000569
-0.0054 -0.0249 -0.2241 0.2466 -0.3639 0.8982 155 108 92 0.000558
-0.0071 -0.0243 -0.2239 0.2903 -0.3825 0.8772 172 120 105 0.000542
-0.0079 -0.0242 -0.2234 0.2352 -0.3691 0.8991 168 117 104 0.000532
-0.0085 -0.0252 -0.2233 0.1810 -0.3102 0.9333 164 113 99 0.000522
-0.0101 -0.0245 -0.2231 0.1477 -0.3005 0.9423 167 114 103 0.000515
-0.0100 -0.0253 -0.2230 0.0613 -0.2515 0.9659 157 106 95 0.000512
-0.0110 -0.0248 -0.2229 0.0407 -0.2506 0.9672 159 109 100 0.000514
-0.0121 -0.0250 -0.2229 -0.0816 -0.1916 0.9781 151 107 99 0.000511
-0.0133 -0.0249 -0.2233 -0.1494 -0.0910 0.9846 112 87 82 0.000513
-0.0150 -0.0253 -0.2238 -0.1620 -0.1251 0.9788 87 50 44 0.000515
-0.0161 -0.0257 -0.2242 -0.1063 -0.1759 0.9786 135 81 70 0.000514
-0.0168 -0.0258 -0.2242 -0.0745 -0.1497 0.9859 146 90 80 0.000512
-0.0177 -0.0258 -0.2242 -0.0074 -0.1848 0.9827 151 97 86 0.000517
-0.0186 -0.0256 -0.2240 0.0108 -0.1751 0.9845 150 96 85 0.000523
-0.0189 -0.0259 -0.2241 0.0500 -0.2026 0.9780 154 99 88 0.000518
-0.0199 -0.0261 -0.2240 0.0602 -0.1984 0.9783 152 97 85 0.000520
-0.0211 -0.0255 -0.2237 0.0555 -0.1784 0.9824 153 98 85 0.000510
-0.0223 -0.0249 -0.2236 0.0358 -0.1494 0.9881 155 99 86 0.000508
-0.0231 -0.0253 -0.2236 0.0236 -0.1315 0.9910 152 97 84 0.000505
-0.0240 -0.0249 -0.2236 -0.0016 -0.0988 0.9951 154 98 84 0.000503
-0.0247 -0.0255 -0.2237 -0.0003 -0.1126 0.9936 153 96 83 0.000503
-0.0257 -0.0252 -0.2237 -0.0056 -0.0933 0.9956 153 97 83 0.000502
-0.0267 -0.0247 -0.2238 0.0066 -0.1043 0.9945 154 98 83 0.000503
-0.0276 -0.0250 -0.2239 0.0431 -0.1280 0.9908 152 97 82 0.000501
-0.0283 -0.0241 -0.2238 0.1017 -0.1779 0.9788 152 99 82 0.000507
-0.0290 -0.0253 -0.2238 0.0803 -0.1586 0.9841 154 99 83 0.000503
-0.0295 -0.0249 -0.2237 0.1322 -0.2121 0.9683 149 96 79 0.000507
-0.0304 -0.0253 -0.2237 0.1436 -0.2406 0.9599 153 99 81 0.000511
-0.0316 -0.0245 -0.2233 0.2053 -0.3172 0.9259 151 99 81 0.000532
-0.0323 -0.0258 -0.2235 0.1946 -0.3248 0.9256 156 102 84 0.000534
-0.0331 -0.0248 -0.2230 0.2479 -0.3861 0.8885 157 103 84 0.000549
-0.0337 -0.0252 -0.2229 0.2783 -0.4005 0.8730 151 100 81 0.000561
-0.0343 -0.0249 -0.2227 0.2837 -0.4503 0.8466 159 105 84 0.000581
-0.0360 -0.0259 -0.2223 0.2810 -0.4831 0.8292 157 105 84 0.000611
-0.0372 -0.0262 -0.2221 0.2602 -0.5125 0.8183 159 107 85 0.000617
-0.0385 -0.0255 -0.2213 0.2621 -0.5492 0.7935 164 112 90 0.000630
-0.0394 -0.0254 -0.2208 0.2260 -0.5595 0.7974 161 110 89 0.000632
-0.0408 -0.0258 -0.2208 0.1864 -0.5725 0.7985 163 113 91 0.000627
-0.0412 -0.0248 -0.2198 0.1848 -0.5464 0.8169 163 114 92 0.000629
-0.0424 -0.0251 -0.2200 0.1539 -0.6006 0.7846 160 110 89 0.000654
-0.0485 -0.0251 -0.2199 -0.2743 -0.5160 0.8115 145 95 72 0.000671
-0.0506 -0.0258 -0.2212 -0.3294 -0.4433 0.8336 145 95 71 0.000678
-0.0532 -0.0243 -0.2221 -0.1706 -0.4644 0.8691 144 92 72 0.000621
-0.0542 -0.0243 -0.2222 -0.0293 -0.5263 0.8498 144 93 72 0.000612
-0.0548 -0.0248 -0.2223 0.0121 -0.5538 0.8325 146 98 74 0.000617
-0.0556 -0.0255 -0.2225 0.0485 -0.5970 0.8008 146 98 74 0.000632
-0.0561 -0.0247 -0.2217 0.1032 -0.6347 0.7658 146 96 73 0.000681
-0.0580 -0.0257 -0.2223 0.0456 -0.6738 0.7375 142 91 67 0.000686
-0.0595 -0.0257 -0.2222 -0.0265 -0.6664 0.7451 144 90 66 0.000644
-0.0600 -0.0248 -0.2214 -0.0543 -0.6801 0.7311 145 90 66 0.000679
-0.0612 -0.0259 -0.2227 -0.1341 -0.6808 0.7201 146 91 66 0.000699
-0.0623 -0.0258 -0.2228 -0.1619 -0.6871 0.7083 147 91 67 0.000760
-0.0647 -0.0260 -0.2236 -0.1648 -0.6445 0.7466 146 92 67 0.000682
-0.0662 -0.0255 -0.2237 -0.1962 -0.6308 0.7507 155 96 71 0.000720
-0.0685 -0.0268 -0.2254 -0.1736 -0.6261 0.7602 153 96 70 0.000726
-0.0742 -0.0267 -0.2267 -0.1365 -0.6422 0.7543 152 96 70 0.000766
-0.0743 -0.0254 -0.2258 -0.1324 -0.6568 0.7424 154 97 71 0.000793
-0.0759 -0.0265 -0.2269 -0.0838 -0.6626 0.7443 154 96 71 0.000752
-0.0764 -0.0258 -0.2264 -0.0560 -0.6825 0.7288 155 97 70 0.000743
-0.0777 -0.0264 -0.2271 -0.0680 -0.6802 0.7299 153 96 69 0.000755
-0.0782 -0.0264 -0.2275 -0.0445 -0.6965 0.7162 158 98 71 0.000759
-0.0783 -0.0254 -0.2263 -0.0528 -0.6839 0.7277 153 96 70 0.000808
-0.0796 -0.0256 -0.2268 -0.0061 -0.6244 0.7811 152 95 68 0.000680
-0.0803 -0.0259 -0.2270 0.0862 -0.6295 0.7722 151 95 68 0.000650
-0.0812 -0.0249 -0.2261 0.0667 -0.5812 0.8110 152 95 69 0.000646
-0.1127 -0.0325 -0.2807 0.3043 -0.6512 0.6952 121 78 52 0.000764
-0.1131 -0.0319 -0.2800 0.2813 -0.6367 0.7180 123 79 53 0.000755
-0.1144 -0.0322 -0.2802 0.3073 -0.6072 0.7327 122 78 52 0.000758
-0.1164 -0.0322 -0.2793 0.3444 -0.6009 0.7213 123 80 53 0.000815
-0.1185 -0.0329 -0.2786 0.4689 -0.5359 0.7021 132 90 62 0.000737
-0.1191 -0.0321 -0.2776 0.4811 -0.5233 0.7034 133 88 61 0.000745
-0.1209 -0.0323 -0.2763 0.6068 -0.3892 0.6930 150 106 76 0.000689
-0.1214 -0.0326 -0.2756 0.6500 -0.2447 0.7195 157 113 82 0.000622
-0.1224 -0.0322 -0.2745 0.6672 -0.1609 0.7273 159 115 83 0.000620
-0.1228 -0.0313 -0.2742 0.6763 -0.2027 0.7082 164 117 85 0.000628
-0.1236 -0.0311 -0.2731 0.6866 -0.0443 0.7257 171 125 91 0.000610
-0.1241 -0.0304 -0.2727 0.7618 0.0852 0.6422 174 127 94 0.000628
-0.1245 -0.0302 -0.2707 0.7591 0.3929 0.5190 177 130 97 0.000632
-0.1237 -0.0302 -0.2648 0.6690 0.5729 0.4736 184 139 107 0.000638
-0.1233 -0.0307 -0.2572 0.7601 0.4027 0.5100 207 158 126 0.000577
-0.1248 -0.0289 -0.2543 0.8048 0.4041 0.4347 210 161 128 0.000682
-0.1246 -0.0305 -0.2525 0.8470 0.3302 0.4166 218 168 135 0.000581
-0.1252 -0.0306 -0.2493 0.8553 0.2443 0.4569 220 171 138 0.000570
-0.1251 -0.0305 -0.2503 0.8607 0.3071 0.4062 218 169 136 0.000618
-0.1258 -0.0321 -0.2471 0.8640 0.2215 0.4522 219 170 137 0.000613
-0.1268 -0.0300 -0.2462 0.8992 0.1832 0.3972 221 171 138 0.000600
-0.1250 -0.0279 -0.2397 0.9028 0.1264 0.4111 227 178 145 0.000612
-0.1252 -0.0269 -0.2371 0.8749 0.1403 0.4634 230 180 147 0.000560
-0.1263 -0.0279 -0.2366 0.9063 0.1616 0.3905 228 178 145 0.000612
-0.1267 -0.0283 -0.2323 0.9250 0.2706 0.2669 223 175 142 0.000647
-0.1268 -0.0271 -0.2304 0.9359 0.1551 0.3162 227 178 145 0.000631
-0.1272 -0.0269 -0.2287 0.9125 0.1733 0.3706 227 178 146 0.000603
-0.1277 -0.0272 -0.2296 0.9051 0.2219 0.3628 224 176 144 0.000628
-0.1290 -0.0266 -0.2264 0.9010 0.2145 0.3771 222 174 142 0.000567
-0.1295 -0.0272 -0.2254 0.8915 0.3373 0.3025 222 175 142 0.000569
-0.1287 -0.0250 -0.2233 0.9468 0.0962 0.3071 229 180 147 0.000599
-0.1294 -0.0257 -0.2217 0.8327 0.2227 0.5070 225 177 143 0.000524
0.1066 -0.0269 -0.2458 -0.3251 0.3226 0.8890 61 53 49 0.000584
0.1060 -0.0265 -0.2470 -0.2954 0.1117 0.9488 57 49 44 0.000572
0.1052 -0.0271 -0.2463 -0.3776 0.2195 0.8996 54 45 42 0.000586
0.1036 -0.0269 -0.2481 0.0044 0.0156 0.9999 54 47 43 0.000580
0.1037 -0.0274 -0.2476 -0.3744 0.0876 0.9231 53 45 42 0.000571
0.1008 -0.0274 -0.2476 -0.1955 -0.0897 0.9766 51 42 38 0.000570
0.1021 -0.0283 -0.2472 -0.2881 -0.0033 0.9576 57 50 46 0.000571
0.1027 -0.0277 -0.2471 -0.2334 0.0166 0.9722 52 44 41 0.000562
0.0980 -0.0282 -0.2492 -0.1073 -0.3993 0.9105 42 31 26 0.000635
0.0849 -0.0258 -0.2366 0.3068 -0.3146 0.8983 137 96 72 0.000689
0.0828 -0.0254 -0.2353 0.4141 -0.3279 0.8491 154 108 82 0.000708
0.0806 -0.0259 -0.2340 0.3834 -0.3439 0.8571 159 110 84 0.000717
0.0801 -0.0262 -0.2339 0.4132 -0.3412 0.8443 160 111 86 0.000723
0.0778 -0.0258 -0.2316 0.3590 -0.3511 0.8648 161 112 86 0.000687
0.0773 -0.0262 -0.2315 0.4772 -0.3701 0.7971 172 119 93 0.000789
0.0756 -0.0260 -0.2302 0.3944 -0.2980 0.8693 166 115 89 0.000689
0.0731 -0.0257 -0.2282 0.4035 -0.3811 0.8318 177 123 97 0.000651
0.0715 -0.0251 -0.2271 0.3683 -0.3770 0.8498 180 125 99 0.000690
0.0711 -0.0257 -0.2271 0.3353 -0.3627 0.8695 174 120 94 0.000660
0.0699 -0.0255 -0.2266 0.2857 -0.3943 0.8734 173 118 94 0.000670
0.0682 -0.0250 -0.2259 0.2101 -0.4374 0.8744 176 121 97 0.000696
0.0679 -0.0262 -0.2263 0.2381 -0.4170 0.8772 172 117 93 0.000683
0.0676 -0.0254 -0.2258 0.2595 -0.4430 0.8581 177 122 98 0.000666
0.0655 -0.0253 -0.2251 0.2115 -0.4484 0.8684 174 119 95 0.000643
0.0630 -0.0252 -0.2245 0.1823 -0.4639 0.8669 175 120 96 0.000637
0.0619 -0.0246 -0.2239 0.1498 -0.4035 0.9026 174 121 98 0.000637
0.0615 -0.0251 -0.2241 0.1585 -0.4455 0.8811 173 119 96 0.000630
0.0606 -0.0252 -0.2240 0.1528 -0.4536 0.8780 173 118 94 0.000618
0.0597 -0.0247 -0.2236 0.1584 -0.4440 0.8819 175 119 96 0.000634
0.0582 -0.0250 -0.2234 0.1860 -0.4374 0.8798 171 115 91 0.000638
0.0573 -0.0246 -0.2230 0.1753 -0.4668 0.8668 173 116 93 0.000637
0.0569 -0.0254 -0.2234 0.1814 -0.4871 0.8543 172 116 92 0.000650
0.0552 -0.0251 -0.2228 0.1821 -0.4852 0.8552 173 117 93 0.000648
0.0537 -0.0255 -0.2226 0.1825 -0.4899 0.8524 172 116 93 0.000641
0.0522 -0.0251 -0.2220 0.1979 -0.4800 0.8546 173 118 94 0.000618
0.0497 -0.0244 -0.2209 0.1954 -0.4604 0.8660 178 122 98 0.000599
0.0490 -0.0250 -0.2211 0.1892 -0.4927 0.8494 177 121 98 0.000594
0.0484 -0.0242 -0.2207 0.2173 -0.3674 0.9043 177 122 99 0.000588
0.0476 -0.0245 -0.2205 0.1724 -0.4603 0.8709 178 122 100 0.000582
0.0461 -0.0242 -0.2201 0.1517 -0.4533 0.8784 179 123 103 0.000574
0.0452 -0.0234 -0.2195 0.1660 -0.4394 0.8828 183 127 107 0.000566
0.0448 -0.0242 -0.2198 0.1369 -0.4625 0.8760 181 126 106 0.000560
0.0435 -0.0240 -0.2195 0.1352 -0.4437 0.8859 183 129 111 0.000555
0.0409 -0.0243 -0.2192 0.1639 -0.3969 0.9031 186 135 119 0.000553
0.0398 -0.0242 -0.2190 0.1699 -0.3679 0.9142 188 139 122 0.000552
0.0391 -0.0244 -0.2189 0.1602 -0.3342 0.9288 185 138 122 0.000542
0.0378 -0.0245 -0.2187 0.1629 -0.3167 0.9344 174 131 116 0.000522
0.0362 -0.0239 -0.2182 0.1004 -0.2753 0.9561 133 101 89 0.000508
0.0342 -0.0244 -0.2181 -0.0617 -0.2700 0.9609 80 58 52 0.000499
0.0329 -0.0241 -0.2182 -0.2470 -0.2581 0.9340 69 49 44 0.000504
0.0317 -0.0243 -0.2187 -0.4151 -0.2634 0.8708 65 45 40 0.000519
0.0308 -0.0241 -0.2194 -0.5116 -0.2459 0.8233 63 42 37 0.000568
0.0294 -0.0241 -0.2206 -0.5829 -0.2482 0.7737 76 50 41 0.000595
0.0285 -0.0245 -0.2215 -0.5698 -0.2619 0.7789 93 61 50 0.000590
0.0271 -0.0244 -0.2225 -0.5276 -0.2279 0.8184 124 84 69 0.000574
0.0250 -0.0240 -0.2235 -0.3848 -0.1961 0.9019 156 107 86 0.000522
0.0242 -0.0247 -0.2239 -0.2858 -0.1526 0.9460 170 119 96 0.000501
0.0234 -0.0250 -0.2242 -0.1821 -0.1197 0.9760 185 134 110 0.000498
0.0224 -0.0247 -0.2243 -0.0820 -0.0552 0.9951 199 148 124 0.000498
0.0053 -0.0240 -0.2264 0.0807 -0.1577 0.9842 128 93 87 0.000518
0.0047 -0.0241 -0.2257 0.0926 -0.1283 0.9874 120 85 79 0.000519
0.0033 -0.0235 -0.2263 0.1478 -0.1419 0.9788 131 87 80 0.000523
0.0034 -0.0242 -0.2257 0.1244 -0.1739 0.9769 126 87 79 0.000532
0.0020 -0.0244 -0.2257 0.1275 -0.1942 0.9726 129 86 77 0.000530
0.0009 -0.0239 -0.2259 0.2221 -0.2468 0.9433 136 91 82 0.000539
-0.0001 -0.0238 -0.2257 0.2064 -0.2540 0.9449 139 92 85 0.000539
-0.0003 -0.0249 -0.2255 0.1219 -0.2800 0.9522 136 92 84 0.000548
-0.0013 -0.0252 -0.2256 0.1641 -0.3197 0.9332 141 96 87 0.000547
-0.0022 -0.0243 -0.2254 0.1931 -0.3608 0.9124 147 100 90 0.000553
-0.0030 -0.0245 -0.2243 0.2053 -0.3148 0.9267 145 100 87 0.000572
-0.0038 -0.0247 -0.2250 0.2251 -0.3707 0.9010 154 107 93 0.000562
-0.0047 -0.0241 -0.2247 0.2480 -0.4042 0.8804 160 112 97 0.000563
-0.0053 -0.0245 -0.2246 0.2814 -0.3788 0.8817 161 112 97 0.000555
-0.0067 -0.0240 -0.2234 0.2331 -0.3280 0.9155 162 113 98 0.000539
-0.0081 -0.0242 -0.2231 0.1997 -0.3121 0.9288 164 115 101 0.000524
-0.0094 -0.0242 -0.2229 0.1392 -0.2878 0.9475 162 111 99 0.000516
-0.0104 -0.0237 -0.2228 0.0607 -0.2716 0.9605 155 106 96 0.000510
-0.0109 -0.0237 -0.2224 0.0146 -0.2315 0.9727 153 106 97 0.000510
-0.0121 -0.0238 -0.2226 -0.0965 -0.2025 0.9745 140 104 96 0.000516
-0.0131 -0.0241 -0.2232 -0.1590 -0.1564 0.9748 103 80 76 0.000517
-0.0141 -0.0239 -0.2235 -0.1431 -0.1531 0.9778 70 43 39 0.000516
-0.0148 -0.0243 -0.2237 -0.1456 -0.1307 0.9807 107 63 55 0.000518
-0.0160 -0.0251 -0.2240 -0.1087 -0.1399 0.9842 139 84 73 0.000517
-0.0170 -0.0244 -0.2237 -0.0362 -0.1927 0.9806 146 93 82 0.000515
-0.0178 -0.0244 -0.2238 0.0035 -0.1870 0.9824 149 96 85 0.000511
-0.0185 -0.0246 -0.2238 0.0374 -0.1904 0.9810 147 95 83 0.000513
-0.0194 -0.0249 -0.2237 0.0476 -0.1917 0.9803 151 96 85 0.000513
-0.0204 -0.0246 -0.2236 0.0417 -0.1723 0.9842 150 96 84 0.000513
-0.0216 -0.0234 -0.2234 -0.0355 -0.1174 0.9925 152 98 85 0.000513
-0.0221 -0.0246 -0.2235 0.0204 -0.1356 0.9906 152 97 84 0.000507
-0.0232 -0.0242 -0.2235 -0.0070 -0.1025 0.9947 148 95 81 0.000505
-0.0242 -0.0243 -0.2236 -0.0141 -0.0899 0.9959 148 95 81 0.000505
-0.0251 -0.0243 -0.2236 -0.0116 -0.0937 0.9955 149 95 80 0.000504
-0.0265 -0.0236 -0.2237 -0.0094 -0.1574 0.9875 150 96 81 0.000512
-0.0268 -0.0241 -0.2237 0.0262 -0.1057 0.9941 151 96 82 0.000499
-0.0310 -0.0236 -0.2233 0.2532 -0.3192 0.9132 151 99 82 0.000541
-0.0313 -0.0246 -0.2233 0.2177 -0.3087 0.9259 152 99 81 0.000526
-0.0325 -0.0246 -0.2231 0.2789 -0.3664 0.8877 152 100 81 0.000549
-0.0344 -0.0237 -0.2218 0.3414 -0.4522 0.8240 152 100 80 0.000586
-0.0351 -0.0244 -0.2218 0.3341 -0.4786 0.8120 154 102 81 0.000602
-0.0371 -0.0248 -0.2213 0.3085 -0.5115 0.8020 158 107 85 0.000618
-0.0391 -0.0245 -0.2205 0.2545 -0.5575 0.7902 165 113 92 0.000627
-0.0402 -0.0248 -0.2202 0.2210 -0.5623 0.7969 164 114 93 0.000624
-0.0414 -0.0251 -0.2199 0.1600 -0.5782 0.8001 159 110 89 0.000640
-0.0422 -0.0244 -0.2194 0.1477 -0.5867 0.7962 160 111 90 0.000632
-0.0436 -0.0252 -0.2197 0.0898 -0.5684 0.8179 151 102 82 0.000628
-0.0434 -0.0243 -0.2191 0.0905 -0.5709 0.8160 151 104 83 0.000637
-0.0449 -0.0248 -0.2193 0.0229 -0.5855 0.8103 148 99 78 0.000630
-0.0460 -0.0244 -0.2192 -0.0567 -0.5769 0.8148 147 98 77 0.000635
-0.0472 -0.0250 -0.2196 -0.1472 -0.5415 0.8277 144 95 72 0.000655
-0.0490 -0.0246 -0.2198 -0.2948 -0.4966 0.8164 151 99 76 0.000669
-0.0507 -0.0247 -0.2208 -0.3518 -0.4280 0.8325 144 94 71 0.000699
-0.0520 -0.0249 -0.2215 -0.3187 -0.4358 0.8417 144 95 72 0.000683
-0.0516 -0.0239 -0.2213 -0.3419 -0.4136 0.8438 147 93 72 0.000658
-0.0534 -0.0250 -0.2221 -0.1819 -0.4896 0.8528 142 94 72 0.000651
-0.0567 -0.0249 -0.2218 0.1262 -0.6442 0.7543 144 93 70 0.000664
-0.0570 -0.0243 -0.2210 0.1396 -0.6641 0.7345 142 91 68 0.000671
-0.0607 -0.0255 -0.2222 -0.0552 -0.6536 0.7548 138 87 64 0.000688
-0.0608 -0.0247 -0.2214 -0.0693 -0.7118 0.6990 145 91 66 0.000712
-0.0606 -0.0240 -0.2208 -0.0978 -0.6861 0.7209 148 92 68 0.000730
-0.0630 -0.0252 -0.2222 -0.1623 -0.7061 0.6893 148 92 68 0.000763
-0.0640 -0.0250 -0.2224 -0.1948 -0.6383 0.7447 147 92 67 0.000716
-0.0666 -0.0259 -0.2239 -0.1820 -0.6593 0.7295 150 94 69 0.000834
-0.0687 -0.0252 -0.2242 -0.2166 -0.6227 0.7519 154 96 71 0.000792
-0.0687 -0.0248 -0.2237 -0.2483 -0.5937 0.7654 149 94 69 0.000777
-0.0707 -0.0258 -0.2252 -0.1943 -0.6210 0.7594 152 96 71 0.000774
-0.0726 -0.0258 -0.2256 -0.1616 -0.6338 0.7564 150 95 70 0.000782
-0.0788 -0.0253 -0.2263 -0.0511 -0.6762 0.7349 154 96 70 0.000745
-0.0793 -0.0257 -0.2267 -0.0450 -0.6643 0.7461 156 97 70 0.000720
-0.0802 -0.0246 -0.2259 -0.0649 -0.6571 0.7510 155 96 69 0.000742
-0.1131 -0.0312 -0.2793 0.2972 -0.6321 0.7156 125 80 53 0.000733
-0.1156 -0.0318 -0.2792 0.3409 -0.6060 0.7187 124 81 54 0.000778
-0.1174 -0.0322 -0.2788 0.4212 -0.5674 0.7076 126 82 55 0.000782
-0.1197 -0.0323 -0.2770 0.5594 -0.4153 0.7174 141 97 68 0.000641
-0.1201 -0.0313 -0.2764 0.5358 -0.3991 0.7440 145 100 70 0.000647
-0.1213 -0.0312 -0.2754 0.6193 -0.2757 0.7352 153 107 76 0.000628
-0.1223 -0.0309 -0.2744 0.6552 -0.1910 0.7309 161 114 83 0.000630
-0.1228 -0.0303 -0.2739 0.6706 -0.2038 0.7133 165 117 86 0.000661
-0.1245 -0.0293 -0.2715 0.7395 0.0960 0.6663 182 133 99 0.000609
-0.1246 -0.0290 -0.2686 0.7183 0.4718 0.5113 184 136 103 0.000605
-0.1252 -0.0289 -0.2678 0.6583 0.5279 0.5366 191 141 107 0.000612
-0.1230 -0.0317 -0.2625 0.7262 0.4434 0.5253 188 141 110 0.000630
-0.1232 -0.0297 -0.2601 0.7240 0.3891 0.5695 197 150 118 0.000597
-0.1247 -0.0279 -0.2555 0.7779 0.3839 0.4975 203 155 122 0.000654
-0.1252 -0.0294 -0.2523 0.8548 0.3117 0.4149 216 166 133 0.000578
-0.1249 -0.0303 -0.2511 0.8638 0.2708 0.4248 218 169 136 0.000614
-0.1255 -0.0296 -0.2498 0.8521 0.2857 0.4386 218 167 135 0.000580
-0.1261 -0.0304 -0.2475 0.8659 0.1635 0.4728 223 173 140 0.000597
-0.1264 -0.0286 -0.2481 0.7887 0.3062 0.5331 217 168 136 0.000582
-0.1270 -0.0293 -0.2458 0.8874 0.2128 0.4090 216 168 135 0.000596
-0.1275 -0.0296 -0.2449 0.8911 0.2069 0.4040 215 167 134 0.000610
-0.1251 -0.0279 -0.2404 0.8840 0.2970 0.3610 225 176 144 0.000645
-0.1252 -0.0266 -0.2382 0.8977 0.1629 0.4095 228 179 146 0.000614
-0.1260 -0.0265 -0.2364 0.9184 0.1328 0.3727 225 176 143 0.000627
-0.1269 -0.0290 -0.2354 0.8990 0.3203 0.2988 220 173 140 0.000655
-0.1271 -0.0274 -0.2329 0.9254 0.2696 0.2665 221 174 142 0.000678
-0.1268 -0.0255 -0.2307 0.9506 0.1340 0.2800 227 177 146 0.000650
-0.1273 -0.0257 -0.2284 0.9140 0.1378 0.3816 228 178 145 0.000591
-0.1277 -0.0251 -0.2280 0.8987 0.2070 0.3867 226 177 144 0.000567
-0.1279 -0.0254 -0.2275 0.8764 0.1947 0.4404 227 177 145 0.000562
-0.1290 -0.0249 -0.2224 0.8434 0.2434 0.4790 227 178 145 0.000545
0.1062 -0.0264 -0.2463 -0.3046 0.1179 0.9452 61 53 49 0.000564
0.1032 -0.0265 -0.2476 -0.1623 -0.0567 0.9851 52 44 42 0.000589
0.1006 -0.0257 -0.2475 -0.0923 -0.2269 0.9695 53 46 39 0.000598
0.1019 -0.0269 -0.2478 -0.1385 -0.1161 0.9835 51 43 39 0.000567
0.1010 -0.0269 -0.2469 -0.2719 -0.1145 0.9555 63 55 50 0.000582
0.0839 -0.0240 -0.2354 0.3712 -0.3331 0.8668 153 107 82 0.000703
0.0819 -0.0243 -0.2343 0.3989 -0.2965 0.8677 165 116 89 0.000693
0.0824 -0.0250 -0.2349 0.4020 -0.3438 0.8486 155 108 83 0.000675
0.0790 -0.0248 -0.2323 0.3884 -0.3827 0.8383 169 119 92 0.000707
0.0769 -0.0248 -0.2307 0.4081 -0.3617 0.8382 174 122 95 0.000687
0.0754 -0.0254 -0.2300 0.3988 -0.4272 0.8115 175 121 95 0.000758
0.0733 -0.0241 -0.2277 0.3841 -0.3107 0.8695 178 124 98 0.000688
0.0729 -0.0248 -0.2276 0.3971 -0.3296 0.8565 177 123 97 0.000645
0.0715 -0.0250 -0.2270 0.3421 -0.3240 0.8820 175 121 96 0.000640
0.0688 -0.0240 -0.2255 0.3357 -0.3847 0.8599 183 126 102 0.000689
0.0686 -0.0248 -0.2258 0.2712 -0.4199 0.8661 178 123 98 0.000686
0.0665 -0.0246 -0.2250 0.2610 -0.4446 0.8568 179 124 99 0.000651
0.0649 -0.0249 -0.2248 0.2095 -0.4467 0.8698 176 121 97 0.000637
0.0640 -0.0244 -0.2242 0.2037 -0.4522 0.8683 177 122 98 0.000628
0.0616 -0.0241 -0.2236 0.1839 -0.4186 0.8894 177 123 100 0.000625
0.0631 -0.0244 -0.2240 0.1574 -0.4176 0.8949 173 119 96 0.000625
0.0596 -0.0242 -0.2233 0.1921 -0.3764 0.9063 174 120 96 0.000634
0.0604 -0.0238 -0.2232 0.1632 -0.4414 0.8823 178 123 99 0.000622
0.0585 -0.0240 -0.2229 0.1683 -0.4522 0.8759 177 120 97 0.000617
0.0557 -0.0235 -0.2220 0.2017 -0.4640 0.8625 179 122 98 0.000631
